ply
        format ascii 1.0
        element vertex 83112
        property float x
        property float y
        property float z
        property uchar blue
        property uchar green
        property uchar red
        end_header
-36.810643 -118.873177 -46.550852 51 66 75
110.714238 0.691446 75.104293 131 122 112
246.834561 81.388716 163.558553 158 143 127
-120.087904 -73.518446 -95.175321 225 210 194
-79.696156 -117.409796 -81.877271 77 92 108
-104.926752 -88.896058 -66.796259 235 211 189
-94.473221 -93.196770 -74.193478 93 107 129
117.613756 -46.823727 91.864320 72 79 72
217.165779 -9.914512 130.972684 35 23 11
344.354562 3.520232 199.627001 72 48 30
-94.280765 -58.176789 -75.182131 208 195 179
-116.617199 -72.645847 -78.217093 238 213 187
71.322694 -19.836935 58.111904 23 43 14
464.481815 176.432158 410.940877 86 101 117
660.234357 207.107735 542.731254 25 21 27
55.278559 -53.892937 53.465650 20 16 82
431.513289 -84.579712 389.563209 113 122 136
-79.097499 -77.881473 -60.883855 232 213 192
-144.178602 -119.374486 -132.001594 72 83 97
-279.719496 -234.157219 -223.698458 103 108 111
-80.982199 -73.820207 -57.543322 232 209 183
-90.210352 -72.671225 -56.148740 220 197 171
-26.408153 -107.326374 -38.042329 52 65 79
-2.115671 -72.063078 -2.584398 57 70 84
-26.049423 -96.141688 -34.084019 53 69 82
-63.385169 -72.801366 -49.973975 226 206 188
-149.943424 -130.771199 -140.118972 19 17 17
386.564621 -163.844302 347.396691 134 145 149
530.470820 226.609718 467.918669 44 59 68
339.781556 95.448103 193.588002 177 153 129
8.154385 -65.416035 10.239516 80 86 93
450.726045 250.172595 316.564791 133 127 120
-67.451025 -69.351558 -52.798490 232 208 188
-198.655363 -44.058396 -115.506239 204 183 156
-77.445057 -69.660384 -49.375834 223 200 174
678.147271 -250.379551 603.093508 122 132 139
-105.276218 -85.496547 -68.293416 237 214 188
-26.955464 -95.515283 -36.479971 55 68 84
-103.453784 -68.177995 -63.273424 215 192 166
-41.086685 -127.680637 -52.204860 51 63 73
809.994273 237.082442 518.607914 215 187 170
761.428350 299.696633 382.806463 18 23 22
-322.424336 -152.105545 -203.762196 255 255 220
312.835275 104.573740 200.103750 171 153 136
-16.741178 -69.794765 -24.426568 84 89 88
-102.990533 -157.905222 -100.034049 70 88 105
-213.857431 -179.704455 -200.100025 86 97 111
-142.744633 -62.066009 -83.735954 209 188 161
247.791795 -65.769947 224.279701 106 115 129
98.497536 -20.477378 56.907076 130 117 95
40.569983 -40.665994 39.060329 64 79 95
-201.481190 -138.536912 -102.158883 5 4 0
68.489136 -59.096097 64.226955 27 24 20
24.863256 -77.951299 27.311767 92 97 98
-157.061566 -50.543581 -102.775015 226 203 177
-59.691112 -73.268177 -47.630390 217 201 184
-73.877066 -144.103849 -79.701962 62 76 94
-155.664733 -203.488445 -149.925695 77 89 101
-32.868216 -92.891085 -39.988695 33 45 69
-35.774016 -117.553681 -45.719446 49 65 78
-36.833825 -84.555303 -41.741873 95 121 158
-37.741180 -82.345346 -42.128946 60 112 125
429.797748 146.714145 248.255047 183 158 138
-61.973155 -75.960860 -50.094811 204 192 182
203.532288 -37.921153 117.162090 245 233 205
-59.501364 -87.467394 -59.740452 99 106 125
-41.569250 -74.848299 -42.596864 130 140 147
-31.902890 -71.310620 -34.741819 80 88 101
-185.680947 -158.724110 -171.263436 77 90 106
249.116652 92.576213 158.306777 132 126 115
-666.204156 -314.416235 -530.722058 34 29 28
435.825986 -158.056350 385.082535 147 153 152
283.450552 90.252326 227.900970 32 82 154
537.844420 -149.605297 475.502165 75 81 92
86.364247 0.731216 72.499797 51 67 74
-35.959950 -76.722368 -38.827377 87 96 116
-150.568139 -220.656549 -151.799510 67 83 96
26.985116 -48.915420 27.423562 70 86 103
65.790378 -58.652135 61.879786 29 23 16
-126.551933 -71.326391 -83.059452 234 209 183
-162.433821 -80.430293 -100.222650 226 203 177
953.469326 648.822526 774.295825 108 139 106
-102.761979 -72.958122 -57.428413 195 178 157
-102.761979 -72.958122 -57.428413 195 178 157
78.737093 -22.440634 57.744062 135 130 121
192.566762 -32.905170 107.855500 59 42 23
-23.399496 -99.484128 -33.257877 45 58 74
-74.702469 -67.256240 -70.565481 92 102 119
-118.265532 -93.711816 -101.251270 154 168 174
553.902897 226.347855 334.712945 178 154 136
-161.136027 -72.392739 -130.004935 161 170 174
-123.319547 -93.655748 -73.929485 227 204 182
-533.821746 -393.431731 -385.450514 204 181 159
11.268872 -65.893876 12.340888 5 5 53
154.449525 -40.066616 131.765597 96 110 122
511.354106 227.813628 330.973451 177 159 142
309.220823 98.267189 177.110597 151 137 115
17.871103 -53.834608 21.202249 53 66 80
-789.244455 -492.350367 -525.541709 236 206 181
-233.341491 -86.721980 -168.468821 241 218 196
544.575025 -136.797224 475.818605 91 101 111
829.874488 -125.561149 725.320663 96 102 115
289.266171 17.145652 212.733207 32 20 16
-195.350836 -75.749995 -113.803625 215 192 166
96.670787 -32.200610 66.940817 249 218 187
420.657756 -160.614363 366.789905 156 160 155
45.071785 -81.618954 45.405800 84 91 94
-247.120461 -169.534316 -200.451731 103 113 120
-15.294901 -78.417375 -16.793741 11 3 13
542.327843 -155.080054 470.841390 96 97 107
23.219591 -53.189658 25.391618 68 81 97
-111.774332 -62.537761 -82.698819 231 207 185
-15.815389 -68.966936 -16.110670 16 4 0
-463.442117 -294.436322 -253.468491 202 177 151
-61.184379 -133.972674 -64.579891 57 73 86
-107.958291 -65.279758 -66.899648 219 196 170
99.377799 -31.885411 62.061817 215 191 163
-133.603445 -88.710660 -73.102879 199 181 158
206.861857 52.037164 176.722085 80 96 108
-209.018768 -64.278329 -168.769812 183 171 165
-9.900857 -76.194603 -11.750775 65 76 84
-95.956840 -104.500581 -76.345607 116 132 131
841.796932 104.220536 596.790392 255 255 242
-129.526497 -83.977207 -81.495369 232 209 183
107.577235 -95.916330 99.767651 100 110 117
79.835773 -43.477500 63.251406 37 38 42
53.104958 -38.985267 44.972159 47 93 51
-36.376933 -75.412465 -35.740350 160 168 168
518.225119 -148.218497 446.728441 92 94 105
-583.544576 -151.479346 -292.534882 18 0 0
-36.906537 -67.535777 -37.551054 11 15 34
393.062763 -171.430122 338.477783 140 147 150
-38.484845 -84.434240 -41.249718 50 62 90
108.881331 -23.348263 79.344745 227 200 179
-163.778126 -138.506785 -149.785796 41 50 60
-132.913254 -88.439816 -95.046912 236 218 195
-139.981547 -187.801396 -134.462287 77 90 104
417.336928 -171.805426 358.163769 140 147 150
52.201960 -27.610295 45.621558 62 78 91
222.102654 33.179997 142.154264 218 191 165
112.983451 -18.186821 81.283225 247 221 204
-62.526354 -92.501494 -56.825668 97 112 131
451.346362 -167.146741 386.428969 144 152 152
417.431624 -156.495098 357.538531 146 150 151
520.411993 -149.121553 445.080548 103 109 120
-116.935852 -156.092264 -110.230514 76 89 103
17.008430 -54.400128 19.332880 56 70 82
23.251264 -56.823840 24.295295 62 77 93
131.788165 -88.282386 119.030463 22 28 41
-290.973328 -201.428221 -165.057023 237 209 175
-30.915841 -84.142051 -35.075922 19 18 90
121.760302 -5.711485 83.795513 175 159 142
-482.977140 -317.458969 -281.804198 207 182 156
119.655315 -12.848051 75.700530 186 162 144
-49.662054 -87.430952 -49.159488 18 14 89
1.802725 -69.527068 1.723892 91 126 160
-189.669865 -73.633593 -102.382743 191 175 158
-17.814346 -67.129947 -22.807149 82 88 87
135.347517 -45.035570 119.083267 121 136 145
-67.445713 -70.856996 -52.415217 211 195 178
92.212364 -14.196813 79.492038 20 41 33
368.707453 9.284855 288.681121 127 141 137
-222.266234 -47.568484 -193.726115 90 95 110
542.339828 -142.286123 460.645976 121 130 143
-72.416104 -147.621201 -76.015527 73 91 108
-106.572130 -72.405864 -59.560373 199 181 158
459.761969 13.684599 251.278732 234 220 192
-10.148484 -70.191682 -11.096760 83 86 90
-152.547356 -74.418644 -91.712739 223 200 174
-126.489989 -61.326340 -70.985254 197 179 156
-86.092599 -74.624184 -51.035550 215 192 166
-88.922329 -81.136213 -57.282292 232 209 183
-102.580188 -59.150331 -89.190280 46 52 59
-104.604643 -54.602703 -70.529678 220 197 171
253.603319 -51.712671 179.007434 255 234 212
-153.486188 -230.022450 -148.207928 70 86 102
-48.937854 -65.203548 -42.546678 116 126 133
-104.235235 -118.377655 -96.058476 69 81 99
152.535564 -39.061501 89.563791 43 29 17
-83.062819 -74.483948 -52.314980 228 203 177
-255.453330 -63.501167 -165.480816 234 207 186
-98.128829 -109.906165 -81.444833 154 165 169
122.974631 -23.528358 80.659390 253 223 194
-91.476845 -64.652273 -55.803630 219 196 170
-84.104826 -65.031570 -67.083486 183 169 157
-541.040370 -339.979853 -312.499731 211 187 159
-163.343915 -143.286225 -132.911522 18 17 26
-123.357274 -123.726724 -98.877830 108 117 126
-76.697911 -82.324064 -66.454964 122 128 139
-25.879155 -94.580863 -33.556346 51 64 80
-60.211133 -77.042862 -56.315027 19 17 59
-394.876792 -40.317803 -234.720279 220 197 171
-82.124585 -65.832338 -51.009543 220 197 171
119.103429 -25.407585 79.404544 243 222 190
-78.687374 -61.213558 -58.895931 218 199 178
70.175739 -40.801114 59.206351 86 101 117
1097.715795 488.249628 595.458939 156 138 115
-631.134353 -518.419623 -514.455608 40 86 67
366.405405 141.614349 248.825089 185 167 150
-111.541490 -63.286831 -73.139775 230 209 182
1.819922 -68.826136 1.754281 63 76 92
705.356445 -67.465621 495.759513 240 217 195
486.603219 -127.872941 408.720193 125 131 144
-62.140556 -64.627575 -54.374001 69 75 64
-171.931210 -79.518406 -94.788918 201 183 160
-23.197421 -97.296059 -30.952362 45 58 74
-9.279979 -75.688642 -10.742234 62 75 89
-279.302946 -288.884201 -234.731384 46 92 50
-4.863666 -68.871058 -5.303862 88 93 92
-13.780694 -72.321937 -14.830393 94 97 105
115.442591 -2.289919 85.054083 150 144 139
-157.568414 -79.393474 -104.538934 236 213 187
519.306928 -32.372144 399.076514 58 86 116
-121.539493 -51.319537 -102.597677 168 176 176
171.592575 35.950443 118.741552 152 143 134
104.131125 -40.434324 82.156711 39 38 47
-95.095764 -72.594307 -53.645519 208 187 160
-452.407033 6.304005 -284.942177 220 197 171
-25.304935 -88.536442 -29.778018 51 64 80
-95.325968 -123.542350 -88.551499 80 95 111
158.947531 5.627494 81.571682 51 48 44
-36.430040 -85.752135 -36.353428 0 0 48
-21.001722 -72.749187 -20.320167 13 10 42
-7.296638 -74.107242 -6.866061 62 77 93
72.268776 -30.703038 55.129279 19 52 17
-86.382932 -59.682439 -70.396850 181 175 164
-1.001515 -70.419851 -0.935612 67 82 98
-78.788502 -140.808132 -78.240945 62 76 94
-219.192288 -36.338450 -148.282310 227 206 179
175.951382 -4.493648 88.485940 97 85 75
-77.674298 -95.914852 -70.473170 31 29 88
-90.118509 -78.767185 -58.573486 235 211 189
-126.921080 -65.710450 -77.673027 223 200 174
65.163924 -51.561498 57.353540 6 3 0
79.285282 -40.743606 65.659364 91 107 120
175.477795 -7.814885 138.891450 21 23 31
518.160688 347.449220 396.956408 54 68 74
-73.570412 -95.178633 -65.592273 89 101 125
152.968676 -42.684460 84.921090 60 42 25
688.110606 92.139672 387.168226 61 40 25
88.187361 -30.703536 45.756857 63 57 50
-34.038770 -108.033312 -40.090101 51 64 78
155.884388 -40.246654 97.996358 54 37 24
-122.694887 -68.633344 -68.439823 206 185 163
-89.314099 -60.356172 -66.794424 220 203 182
-233.243332 -48.893217 -127.076922 191 177 154
-49.494042 -120.626156 -53.257076 70 86 103
152.482430 -6.730754 98.312049 245 214 191
-119.878530 -60.711232 -100.340400 101 101 113
-62.595066 -76.983922 -56.791755 105 116 130
-127.190735 -65.716092 -77.792056 226 203 177
-136.830759 -84.035543 -99.107030 236 217 196
-85.805200 -80.312872 -56.713500 240 217 191
215.477107 45.247494 155.441120 181 162 147
-307.309872 -353.072508 -272.766735 55 71 88
-7.898563 -72.914608 -9.148883 22 16 103
-307.514766 -61.282353 -211.536087 236 213 187
-344.644036 -125.363911 -266.283794 118 136 159
88.648936 -32.419990 45.410548 51 48 44
-509.355304 -256.460702 -380.482728 148 155 158
93.953949 -11.606805 79.541585 78 93 109
-510.495057 -256.804025 -381.236168 148 155 158
111.878029 -18.784852 58.258421 92 87 72
-219.273831 -61.534622 -172.505320 250 235 209
66.908341 -28.860198 54.292431 48 93 50
-59.745215 -64.986133 -43.977799 219 203 180
-21.040265 -85.415526 -24.619606 53 63 81
-65.024671 -139.275014 -66.846850 61 78 91
-35.383064 -77.860562 -33.478335 26 29 104
-34.240692 -79.988543 -36.137724 158 169 173
-73.668832 -88.075066 -61.781675 96 110 128
-160.009701 -114.062154 -84.191303 245 221 193
-48.470311 -105.650121 -49.587493 72 85 101
-88.994093 -63.690187 -61.856346 229 208 181
133.016347 -4.966117 96.857134 184 171 157
109.984718 -34.803611 83.294878 14 17 21
-217.416962 -248.529403 -186.596442 39 54 63
-157.292120 -74.474197 -89.824692 214 191 165
-756.600999 -547.545686 -521.689020 164 147 134
298.174002 90.685479 199.679750 182 162 145
436.179479 -22.255863 224.275894 179 162 141
353.770697 69.846964 230.458668 255 245 219
-41.005437 -79.430527 -37.836861 23 24 92
0.377544 -69.630360 0.392197 55 68 82
-96.083270 -76.356389 -58.382398 228 205 179
-23.920513 -72.237000 -24.193468 117 122 125
239.750215 14.967396 136.294486 247 217 192
-100.895248 -86.460248 -62.608054 229 206 184
249.071792 106.113867 209.544404 65 81 98
-24.651492 -92.700616 -27.827267 54 67 81
-97.806638 -129.910501 -88.013466 80 96 109
-33.275864 -96.283093 -37.066355 63 76 90
110.164777 -22.148492 56.983520 96 90 77
-74.279109 -64.353488 -44.871197 214 193 166
-80.907494 -77.925516 -56.449054 240 217 195
192.286291 8.526319 124.549777 255 224 195
133.255600 -42.785667 81.189794 43 28 19
-58.481725 -127.617703 -59.669115 57 71 89
-58.481725 -127.617703 -59.669115 57 71 89
-53.140325 -118.657123 -53.829832 63 79 96
-333.796255 -153.200508 -200.599382 252 232 201
-189.928622 -101.034632 -128.345910 248 227 205
221.878450 20.643683 130.895073 238 208 179
-640.712089 -383.559684 -417.862220 248 218 189
-227.890126 -34.746471 -126.988412 197 178 151
-227.784656 -34.766458 -126.929670 197 178 151
189.301721 -29.328827 103.581554 35 23 11
339.230811 -79.143768 269.436781 120 129 143
-6.572748 -72.394587 -6.339079 67 74 123
-6.572748 -72.394587 -6.339079 67 74 123
533.952918 -87.734163 280.311364 190 176 158
-26.117059 -72.294690 -28.749308 4 11 30
-177.253273 -142.619096 -130.202889 144 150 149
-109.685686 -146.396606 -99.310076 79 94 110
-26.156562 -75.513091 -28.388251 30 30 46
-88.555835 -61.303628 -73.854766 135 142 145
-87.079940 -75.272580 -58.516559 240 217 191
-123.604307 -137.951505 -101.677922 159 165 170
-69.397078 -61.530643 -50.709078 214 195 174
-101.951893 -120.614845 -81.137622 19 19 25
-98.380830 -64.079029 -61.318630 225 202 176
921.846657 273.562699 484.739822 226 202 174
921.846657 273.562699 484.739822 226 202 174
570.431690 -45.828641 373.300360 235 212 190
-34.441332 -101.363578 -38.763361 65 78 94
123.760507 -56.519395 102.775021 75 83 113
182.118722 5.637246 91.324742 59 54 51
-514.459841 -395.955715 -341.422577 162 146 130
-95.477480 -73.700189 -54.059046 209 186 160
93.804759 -14.961517 72.631189 37 86 42
-718.287527 -230.261168 -442.689357 254 255 223
97.050930 -29.385651 49.992162 94 88 75
-228.908192 -55.153510 -159.989621 235 211 189
-10.941845 -67.823492 -12.320474 85 90 89
843.469070 45.968575 448.023391 255 255 255
1000.588677 140.903075 510.987144 255 254 237
503.775667 114.079011 366.198890 142 146 147
-784.433707 -545.022636 -470.978445 160 144 127
-321.202228 -230.630068 -270.947593 79 95 108
-81.249814 -72.661982 -52.142947 230 206 184
-152.938521 -77.340308 -94.476306 233 206 185
-135.659655 -68.093600 -79.859007 218 195 169
-33.919786 -102.933619 -37.167991 63 76 90
328.120768 128.877359 219.371839 159 146 132
359.747698 -137.815385 285.083904 116 125 134
-82.490702 -79.140792 -58.272275 243 220 198
-120.084578 -85.178863 -65.432940 209 186 164
107.514899 -28.958405 66.230052 228 201 175
-57.039076 -117.792770 -56.392763 74 87 103
352.074069 175.691293 226.868570 114 111 106
83.404609 -18.899364 54.968143 116 113 108
138.330410 -45.095449 68.248755 15 10 1
682.192099 315.575120 421.930633 178 160 143
-33.826496 -69.794174 -32.720332 24 18 113
-26.285731 -83.990649 -27.628169 32 43 71
-137.218433 -86.503287 -110.649992 152 166 188
143.439799 1.083666 111.584955 152 163 167
423.011838 -147.946849 333.349908 116 125 134
-22.571244 -81.152232 -19.254185 71 84 100
-87.079541 -70.776972 -51.475908 217 194 168
-117.872017 -84.375086 -83.948414 237 219 202
192.403347 -35.357473 105.373532 70 46 26
-251.942259 -206.627248 -210.754018 89 102 116
-126.220595 -69.443622 -70.422112 210 187 161
-77.726435 -63.630105 -58.543366 187 173 161
-57.293070 -117.610072 -56.112573 69 83 101
161.659806 21.781586 101.984638 153 139 127
-184.702038 -162.190527 -154.805588 87 103 119
120.655554 18.480585 98.047554 61 76 92
-113.155957 -85.401487 -59.918312 195 178 157
-16.058787 -80.204020 -16.140097 58 71 87
-19.036130 -84.436377 -22.584330 50 61 81
-143.969764 -79.765549 -87.084338 231 208 182
-130.121442 -52.393839 -83.746413 226 204 176
-17.067972 -72.640521 -19.925980 30 25 117
-154.291141 -87.729084 -86.070416 217 194 168
31.649968 -64.044917 29.301597 107 143 181
-21.679524 -70.281491 -24.604749 91 97 96
109.906901 -18.640507 61.017020 137 124 102
12.246112 -65.184038 11.325990 33 45 69
682.007711 7.234911 401.854650 175 145 120
311.272594 11.575488 166.730108 23 13 3
-206.000705 -41.294829 -145.075639 224 206 183
-115.631102 -67.065715 -81.864935 232 208 188
-185.940061 -59.969041 -135.535369 214 198 182
31.586719 -63.947260 28.884621 107 143 181
-87.151999 -72.134890 -48.176294 208 185 159
-92.563218 -114.921093 -80.365064 79 91 103
-108.436682 -76.820926 -59.174142 206 183 161
-124.054461 -93.340490 -71.211293 227 204 182
-355.390141 -178.680920 -240.121300 39 23 11
-82.418388 -55.331404 -64.414387 113 119 124
-77.985535 -81.980845 -60.540402 153 167 190
-102.478339 -131.771370 -86.357052 79 92 106
159.123810 -31.840678 90.575452 36 22 10
-105.032188 -89.900063 -64.504568 237 214 188
899.880778 -157.031192 690.492368 124 128 139
658.208507 114.203744 344.120696 20 10 3
174.111363 33.503452 110.186809 129 119 112
-23.547206 -95.139772 -28.621523 50 63 79
86.598546 -58.354559 70.596549 137 144 153
91.734976 -8.349716 69.567138 32 74 27
-130.348574 -93.330292 -79.105285 236 211 191
-73.465677 -69.927015 -51.819474 229 205 185
-58.041851 -62.372422 -46.082044 114 122 129
-120.382037 -70.674573 -69.840635 222 199 173
41.824553 -66.626474 34.735692 9 9 69
-292.636559 -103.879598 -172.571099 226 202 180
-433.272755 -248.654362 -250.314872 241 214 193
-341.262076 -215.871928 -174.887701 198 180 157
-330.499781 -262.152709 -223.004433 204 180 160
-195.461598 -231.585791 -160.636890 44 56 62
-75.397175 -61.051867 -58.492795 181 177 166
244.912119 85.931926 158.262989 136 126 119
-29.035556 -80.623862 -30.928214 65 116 132
423.042624 20.198115 267.657057 64 46 29
163.789492 -45.703293 112.359348 255 254 233
-273.411571 -126.140661 -219.028667 23 21 20
-151.860272 -119.165070 -103.355426 43 26 13
-224.842802 -147.459628 -124.245735 34 20 8
-86.842053 -70.534880 -51.392369 227 202 176
48.425650 -45.170116 40.070945 90 103 119
-210.526089 -100.597624 -115.899878 212 189 167
113.915631 -53.401428 91.118453 137 144 153
93.243163 -29.705781 53.352321 173 157 140
167.765628 -34.985347 132.480623 22 13 16
-86.124512 -144.473299 -78.041205 61 77 90
299.246163 -44.030902 149.514780 178 164 145
23.351574 -64.934092 19.741819 0 16 69
-76.549814 -134.937798 -70.001954 73 85 103
-76.549814 -134.937798 -70.001954 73 85 103
219.373474 86.299128 155.014812 108 105 101
-121.017802 -92.126629 -71.812238 232 208 186
310.716543 86.965384 185.568247 186 160 144
-35.245800 -70.505537 -32.986369 10 16 21
-2.444653 -71.130905 -2.484330 91 90 94
453.516551 -58.980071 229.727108 182 169 153
-2.672748 -71.244842 -2.715811 91 90 94
84.061863 -32.203548 47.301653 143 128 109
-3.652021 -71.739856 -3.713753 91 90 94
110.034183 -37.783497 55.228053 167 146 131
110.028685 -37.785669 55.225260 167 146 131
535.341931 84.774504 321.105609 38 24 12
4.609798 -68.764935 4.411596 126 148 183
-85.750101 -64.720436 -47.998373 204 183 155
-17.737279 -85.934915 -19.690583 50 63 79
-182.044683 -40.816016 -137.750720 108 106 106
577.998639 13.268809 284.893331 114 7 4
91.319072 -20.798895 57.542615 140 130 120
-145.533792 -42.272752 -110.169155 94 92 92
10.706647 -68.432772 10.713286 14 17 38
-80.439302 -85.279414 -63.023113 169 185 201
855.885745 428.018024 459.607488 114 103 89
-93.378087 -70.679267 -66.571732 230 210 192
-135.677852 -71.593703 -74.049882 207 184 162
-127.364348 -51.783091 -96.632524 108 106 106
282.235481 57.950805 141.639981 82 73 63
-58.673473 -69.458287 -47.693701 121 130 143
-23.992990 -85.718133 -25.426964 51 64 80
-23.992990 -85.718133 -25.426964 51 64 80
42.200146 -41.884975 34.756308 58 74 91
312.860811 -12.560191 175.408100 246 228 205
-28.666220 -72.127104 -28.990686 24 27 71
-248.396362 -69.515695 -183.598692 204 200 195
-27.185612 -68.238626 -25.970640 72 84 88
69.290755 -45.441094 55.231823 90 103 117
118.595771 -35.770182 87.964401 14 16 24
116.190589 -26.510796 75.926899 251 219 190
-23.192279 -78.427560 -24.027114 94 140 158
-352.131930 -271.639928 -245.807617 189 174 158
-352.131930 -271.639928 -245.807617 189 174 158
-217.080498 -231.473036 -175.553648 38 52 58
-60.233041 -105.044963 -53.729515 79 92 106
737.845090 331.897783 541.143669 24 74 146
169.526125 4.514762 121.041964 137 150 152
-21.508808 -75.363035 -22.410232 117 129 153
88.382888 -27.186081 51.422592 144 131 115
97.586742 -27.787932 67.245849 203 188 172
-75.867979 -60.500902 -54.691103 203 189 171
-58.340266 -67.175824 -44.364167 246 218 187
-22.396880 -76.868349 -25.412813 40 42 112
517.094491 -21.278223 295.181489 230 209 182
441.373764 -34.368349 288.539834 247 224 202
142.977111 -46.640606 111.562215 88 97 110
172.475716 1.541238 93.223681 197 177 152
-85.000200 -80.878886 -63.687287 123 134 148
-72.411094 -86.065022 -58.744412 106 119 135
400.795298 128.342172 279.702921 195 183 171
-23.166980 -76.897094 -22.792297 103 134 167
48.089522 -36.932534 37.779061 49 62 76
80.417827 -22.335118 61.766419 38 52 58
-194.893453 -139.886782 -147.177727 118 122 127
99.721142 -21.791498 59.076664 158 144 126
93.378836 -32.468386 47.788692 114 104 87
232.677331 70.924314 162.718677 137 132 129
123.212441 11.811543 83.197427 110 104 99
-37.445535 -75.609484 -34.163424 136 149 157
-27.086624 -93.015887 -29.331854 56 69 85
-168.238075 -90.036547 -101.831407 232 211 184
-101.891344 -89.571543 -79.136092 96 110 128
-466.887052 14.361692 -352.220853 116 128 134
-74.420025 -129.191448 -66.751200 70 84 102
-957.510141 -419.106180 -468.322519 4 0 0
-49.334293 -118.770854 -48.050414 61 77 93
-147.761375 -95.742346 -82.510452 216 195 168
-46.016654 -71.185083 -40.178832 97 107 124
102.699822 -14.867148 59.761859 127 125 117
-392.016935 -239.016978 -189.673755 41 41 41
-137.429443 -63.994284 -84.220728 231 207 185
94.988211 -12.353597 73.242215 61 73 85
-74.652332 -129.208271 -66.832193 70 84 102
34.016701 -48.946591 28.027129 60 74 92
-92.151609 -75.337602 -62.019823 239 215 193
101.426567 -22.816112 73.750450 22 72 144
181.791878 -6.025767 87.486278 60 52 52
-40.333567 -67.397293 -35.641329 94 106 110
82.833296 -25.028331 61.921609 52 98 56
778.641644 -288.811001 575.438426 185 172 158
-89.607614 -86.768118 -71.040965 107 121 139
-78.783114 -59.930695 -56.798280 189 176 162
-133.179514 -78.575994 -66.901352 12 0 0
-35.184991 -101.768116 -33.900606 57 73 86
117.721494 -20.011314 58.648486 57 54 49
182.106723 -34.800330 90.564505 24 15 5
152.485028 -4.191257 74.801611 32 34 34
473.420515 145.377524 283.372926 217 190 169
-209.203445 -260.005528 -172.793502 63 79 92
-156.199714 -84.273409 -78.061896 14 1 0
-57.274275 -83.153048 -48.739162 80 90 108
-152.048109 -84.996083 -96.690262 239 218 191
503.182590 143.245887 317.121446 253 222 191
109.796702 -12.122331 77.107974 21 52 21
137.968066 -11.329648 71.449983 161 142 121
-50.798980 -119.203155 -48.651046 61 77 94
141.863773 12.865840 89.376998 145 135 125
111.615184 -53.142675 84.379141 59 73 85
-15.201855 -81.302604 -16.075169 56 69 85
-52.846549 -63.858220 -41.847296 114 124 131
-189.825762 -89.487650 -98.981514 197 181 158
-22.235058 -89.244610 -25.836396 47 58 78
-647.560122 -427.972916 -408.537592 190 166 146
-447.881993 -170.828771 -293.150113 255 255 242
-90.561763 -65.253253 -54.306257 222 199 173
87.967019 -12.526936 67.091794 46 63 76
94.296784 -10.108819 71.819529 43 54 68
307.996462 -7.440477 194.864893 60 42 25
372.354945 17.649005 198.296950 35 23 11
40.791909 -45.769305 31.519920 63 78 94
-60.830488 -114.869340 -54.269784 71 85 103
387.629278 -121.897467 275.664278 196 182 170
666.721256 268.035289 511.713041 80 93 107
-402.547892 -240.118661 -236.113827 255 228 207
517.019559 97.737355 276.147348 166 148 131
-175.470758 -94.658179 -127.154273 72 96 126
-207.374682 -77.385010 -117.498458 223 200 174
239.353456 -2.330017 159.287047 84 79 81
474.495178 232.186069 336.611582 41 76 36
241.550115 -38.413679 168.132645 65 73 66
155.652831 -9.687461 91.985754 219 194 168
117.154847 -38.466985 67.625525 210 186 168
-55.925364 -106.355842 -50.320132 75 90 106
-296.164727 -62.851005 -214.642070 241 221 196
117.978642 -2.492668 87.031011 53 100 62
-177.064514 -77.335161 -99.642671 225 204 177
-203.417210 -123.946035 -119.622027 255 255 226
-133.370939 -65.685965 -95.272181 187 175 165
265.840719 117.666408 176.474104 111 106 103
134.899659 -34.779803 76.327018 147 131 119
-29.743985 -105.149451 -32.005237 37 52 61
-22.242314 -74.325735 -22.474908 38 37 93
-219.177046 -99.244029 -115.791288 201 183 160
106.241734 -28.973485 51.981003 42 40 39
-21.529685 -92.294504 -23.302531 47 61 73
274.279223 19.455046 179.493624 234 207 186
-491.677301 -259.569929 -260.511083 219 192 166
-16.659453 -81.485604 -14.326448 69 84 100
130.398588 -35.849663 68.277184 178 155 139
-77.033042 -65.042497 -58.761674 117 127 137
345.014984 90.040931 221.637341 226 199 173
92.661315 -9.314301 64.271870 65 70 71
321.349755 123.169217 218.760249 84 77 80
-32.434263 -101.146019 -30.096475 52 68 80
1178.848758 523.104257 606.962029 139 126 104
-33.675420 -67.760476 -28.615850 11 15 34
-33.675420 -67.760476 -28.615850 11 15 34
8.379992 -62.746339 8.108472 50 64 76
-67.080442 -73.286023 -48.572290 189 175 163
712.682711 -23.263891 489.916708 92 109 136
-273.614513 -18.748670 -193.595369 174 162 150
-31.870671 -68.890684 -27.514050 93 96 100
265.448770 93.473270 162.290500 134 124 117
1200.126507 628.340824 684.036970 147 134 118
-82.634181 -69.018571 -48.868265 221 198 172
243.215875 4.346800 121.327301 181 164 145
-19.203280 -77.149412 -19.625430 10 7 86
132.465299 -27.105724 63.736518 60 56 51
-44.296135 -111.200916 -41.606004 57 73 90
130.280638 -23.143536 63.812219 91 78 70
712.194583 294.700562 444.763751 203 179 161
164.323703 -22.992429 85.232753 205 178 158
-444.943274 -225.265358 -301.177730 92 99 102
158.412866 -27.639882 81.974282 138 124 112
-230.467890 -99.800252 -147.809423 241 217 197
-160.832603 -125.082697 -95.728492 41 27 15
-173.753816 -100.906580 -86.099711 186 173 151
-74.751892 -64.318661 -52.305060 208 195 179
-200.830774 -70.352946 -104.197762 193 178 159
-195.784717 -214.166641 -153.017054 28 57 54
230.450380 -15.100122 170.764175 102 95 100
293.352863 -9.169083 157.241721 52 33 18
-167.464005 -143.212846 -129.540735 88 101 115
-167.464005 -143.212846 -129.540735 88 101 115
-35.870141 -85.788921 -32.455346 0 0 17
-26.253800 -102.785487 -29.499729 33 48 57
-77.711461 -142.922520 -67.448056 56 72 85
-119.217751 -56.810670 -89.184027 93 107 119
-29.359998 -79.844081 -28.738679 0 0 49
188.800454 22.660795 93.880227 51 47 42
-278.380401 -109.700186 -174.293456 250 227 205
-28.632972 -91.717384 -25.907574 65 81 94
-379.875495 -230.308598 -230.998514 255 245 218
-338.423439 -325.551182 -254.694749 39 82 31
-59.040710 -69.426566 -46.291140 85 91 102
158.380472 16.679207 102.965436 162 152 142
-175.483952 -116.803525 -94.287582 251 240 212
1003.521734 -247.287504 693.945109 203 189 171
682.890729 427.508703 515.280792 60 76 93
748.646032 -221.749794 519.952562 190 179 165
-26.660130 -97.062268 -28.807498 50 63 79
-71.373959 -85.587408 -54.170430 115 126 146
-109.051900 -114.043854 -79.799908 120 133 135
-85.014177 -64.268894 -57.659771 221 202 181
492.756526 -97.895396 245.516576 12 2 2
620.415819 132.970250 368.570206 160 143 130
-85.722063 -68.192824 -48.027221 212 187 161
-24.051528 -75.350803 -24.053688 57 61 80
-75.525110 -74.982116 -50.887786 232 208 188
113.515243 -40.577927 62.494365 225 198 178
-233.686793 -182.465260 -145.459767 238 207 176
-1056.692357 -709.008198 -624.506277 149 136 120
417.806035 153.543981 211.421545 97 91 78
-138.385605 -78.176431 -76.883206 225 204 177
163.814190 -47.098202 80.479063 219 198 167
-25.069554 -89.223080 -23.015613 63 76 90
121.726836 6.505257 80.963425 114 109 106
-65.490630 -90.512622 -52.308420 119 128 148
332.483080 112.217133 202.140870 165 151 133
-65.441468 -90.496136 -52.248432 119 128 148
-119.522453 -157.101149 -95.987984 67 78 92
-1082.046875 -649.238581 -711.000239 187 166 151
488.675799 74.101696 254.346314 73 65 65
958.866608 327.328487 556.670807 249 221 191
23.497637 -72.393302 20.163452 79 72 39
328.620221 101.518747 169.394568 121 111 94
-74.720000 -72.784378 -48.338483 230 206 184
-272.689824 -98.070397 -148.571811 218 197 170
-180.205805 -199.186111 -140.522905 56 67 81
189.240410 -1.248280 103.305316 235 201 171
-269.985025 -96.530881 -140.214767 204 186 163
-516.832203 7.059632 -352.549277 203 189 171
270.981842 11.233714 151.494450 157 141 125
-99.591111 -62.331644 -68.394434 210 195 176
53.439997 -81.743817 39.569575 90 97 100
132.384622 -32.499990 78.172514 241 210 189
-127.228366 -61.106431 -87.479269 203 187 171
-268.725315 -136.350217 -154.107302 249 215 172
-103.579101 -104.509858 -78.188045 91 105 117
199.313737 -16.363020 125.689998 79 76 78
-47.171506 -81.701706 -39.551464 58 63 84
-29.200768 -96.213150 -28.085477 53 69 82
21.862493 -65.264825 19.090372 5 0 44
509.924026 90.268633 261.160592 157 140 127
939.597997 284.393933 497.766781 237 209 175
-102.505785 -57.588897 -72.625134 226 210 187
175.841692 -20.302723 100.805212 181 155 141
-89.032604 -67.446015 -51.616171 225 201 179
238.265929 1.662237 127.487026 202 177 157
91.176589 -37.781790 62.384070 115 127 129
163.282727 -24.819329 87.222581 189 165 145
274.399372 12.278290 145.997456 177 157 140
235.278721 -23.640993 123.919661 50 34 18
-576.661193 -227.971133 -358.382846 48 32 20
357.666295 42.247284 228.460663 186 164 146
278.154287 41.127957 135.030473 96 84 74
-28.688957 -70.973379 -25.751937 105 112 145
386.347853 50.327365 208.685589 178 155 139
13.455529 -71.806603 12.889806 83 87 88
-39.415190 -73.888343 -33.182137 100 111 125
-25.253564 -73.610805 -23.422888 118 121 129
-169.410388 -76.207275 -86.309917 192 176 159
-13.524316 -79.157560 -13.459720 50 62 80
-24.724285 -74.704070 -23.143993 117 119 130
318.307984 -22.967341 151.605652 60 31 16
619.716584 154.867161 302.279221 157 136 121
323.949441 28.917338 185.299897 153 137 125
-75.016304 -61.012594 -51.815966 188 175 161
540.723106 120.530155 265.691240 196 181 155
-106.691777 -71.520112 -64.182218 230 206 184
-32.047929 -70.334288 -27.907662 24 18 113
92.368618 -66.144860 68.170848 108 113 128
-242.640748 -33.940402 -168.598866 206 194 176
656.720043 38.502708 312.107343 50 26 14
15.296748 -71.274178 14.292677 81 85 86
192.961281 4.248657 94.155008 123 107 91
65.586178 -61.739784 49.376016 20 19 15
125.845043 -24.532224 82.353957 230 211 190
-112.155278 -57.898942 -71.349591 225 202 180
-149.383113 -95.246775 -81.963259 227 204 182
-162.546755 -128.458802 -115.461530 57 53 59
106.303691 -22.295065 74.278717 76 95 140
-45.329033 -71.601503 -35.870512 75 79 90
58.319560 -34.922441 41.610530 34 75 30
-24.560989 -88.357868 -21.964382 63 76 90
180.123493 12.030175 88.805403 80 76 65
119.896589 -53.812168 86.518632 137 144 153
-1189.354482 -528.439637 -583.579925 192 175 154
499.311045 -115.022090 257.825938 195 178 157
499.311045 -115.022090 257.825938 195 178 157
-268.953381 -113.808847 -147.299415 186 162 142
339.920919 30.504727 168.797547 125 116 106
-189.895856 -34.508420 -126.773622 205 190 171
-159.675477 -54.527266 -108.161089 193 178 162
-81.242598 -68.289588 -47.682335 226 202 178
-43.458417 -82.673441 -36.959784 70 73 87
17.098648 -69.788326 13.263331 0 0 61
-268.173085 -98.150606 -160.777572 236 215 188
-146.873808 -78.182341 -82.626718 230 207 181
193.247649 22.462610 95.562177 77 71 64
-33.658305 -89.879509 -31.787050 34 48 67
-35.578846 -71.327037 -30.503222 84 94 104
431.972692 100.846402 209.711255 133 114 99
388.284203 -133.422231 273.315089 116 125 134
391.157529 59.539579 270.365786 106 117 121
-26.136905 -67.672329 -20.142110 78 90 96
126.508488 -9.753919 68.327178 140 126 108
421.806938 114.979628 207.464664 127 113 91
-989.018956 -261.580991 -590.491290 254 255 246
-96.269397 -61.000500 -53.227093 210 189 162
-135.164889 -84.118426 -81.427392 236 213 187
215.963339 8.891239 104.848377 139 119 102
285.620988 92.386121 195.163383 40 84 43
-131.575931 -67.536189 -80.467071 235 212 186
273.998875 116.712678 195.628985 45 61 77
54.906669 -45.450969 40.260659 15 30 63
101.903707 -27.916214 52.611130 133 116 95
-55.352920 -76.600618 -43.542482 98 108 126
-27.296898 -90.926478 -24.590674 63 76 90
283.718393 0.456089 191.606572 108 115 118
158.729196 4.865829 78.111904 66 60 53
8.741201 -67.821787 7.093324 3 0 41
262.558511 16.943565 127.045476 156 133 118
-275.051520 -58.897429 -184.683099 205 191 179
-46.216779 -103.154167 -36.511325 71 90 105
-51.006097 -63.932952 -39.009315 108 118 125
-51.006097 -63.932952 -39.009315 108 118 125
-749.027453 -497.666835 -465.628606 166 149 136
-135.698138 -119.855797 -98.657763 82 95 109
183.563975 29.150881 103.925935 141 134 117
369.647288 -123.352065 253.367969 243 218 184
809.787345 394.499110 568.258341 53 100 62
-97.324866 -65.998934 -53.339041 211 188 162
130.379003 -10.154704 68.831002 140 125 106
202.343537 51.103624 129.022178 129 123 116
-116.199770 -67.006850 -66.501212 223 200 174
734.366180 -127.569902 453.410503 237 214 188
-153.990177 -47.280938 -103.512203 187 175 163
71.981968 -36.117071 50.593065 61 109 80
23.707670 -58.974375 19.208745 69 85 98
-36.966842 -82.444220 -32.578351 0 15 66
149.949884 -19.043555 102.423075 111 119 126
-47.022931 -101.328937 -40.980345 70 85 101
-81.652393 -66.215944 -55.894862 191 175 162
-22.394533 -86.142146 -19.752613 65 78 92
926.284231 320.241255 510.637499 224 196 166
356.189815 55.359153 172.637124 148 130 113
188.205604 -51.370420 88.958407 63 32 17
-39.941337 -84.331614 -34.538065 22 21 25
-556.311872 -11.246716 -279.838519 19 5 0
394.545262 -42.100235 222.966623 233 208 188
113.934906 -30.500088 60.106356 198 175 149
1256.957735 82.698853 604.913694 163 148 129
-40.099282 -73.307876 -33.062919 83 93 111
-2.157733 -70.930897 -1.773098 63 76 92
198.017729 18.343836 96.683005 83 77 66
-199.820859 -50.332945 -133.862572 191 175 162
-102.060353 -62.975841 -66.561953 224 205 184
1.725252 -69.919360 1.326664 4 4 82
273.139002 41.297255 134.633137 176 153 131
384.360705 47.662788 227.788229 159 142 129
3.625516 -69.018379 2.950074 11 10 78
301.663385 68.211763 148.096217 104 97 82
516.278928 92.416502 295.827259 160 141 126
648.430550 68.853315 328.295508 57 37 19
-291.164450 -189.409034 -159.790472 246 221 195
412.322880 197.426604 266.171397 120 116 111
487.306247 -178.292119 342.371016 108 118 125
-48.943908 -64.501695 -37.274437 108 118 125
44.966758 -71.292733 33.288876 80 90 108
191.049560 8.224898 90.597552 31 31 31
295.584487 16.437049 165.342868 129 122 113
-35.016947 -76.786326 -30.018344 155 167 169
-73.721093 -94.289307 -56.141734 87 94 97
-102.808323 -67.389487 -54.575871 205 184 157
95.238474 -29.123703 65.787361 152 164 166
189.098848 16.364741 92.695517 92 87 72
-85.973996 -62.215481 -60.328416 90 94 105
167.983428 10.466801 89.685397 144 129 110
394.729677 108.970426 193.779743 124 114 97
790.362273 -22.400637 513.951207 90 107 134
897.131889 97.683451 500.354097 252 221 182
-22.735880 -90.043756 -23.482818 47 60 76
170.662292 12.115544 82.807760 45 41 40
179.398104 -7.161308 91.933225 221 193 163
282.995986 32.132767 136.019786 130 112 95
345.211714 81.367468 169.686626 137 123 101
-122.577363 -155.479878 -92.992625 64 80 97
122.205412 -10.853333 72.850809 158 144 126
331.007838 -45.326360 174.151922 217 194 168
115.629632 -28.714629 54.529193 31 31 31
107.778514 -20.390543 69.295250 160 147 139
-971.114618 46.321116 -645.581496 181 167 155
-747.716780 -274.140519 -388.336677 36 24 12
-25.957382 -94.639962 -26.216595 47 60 76
167.811478 -8.609820 87.773161 207 183 155
221.197811 43.031305 121.635742 152 134 117
-32.232575 -69.954242 -26.065901 17 16 110
-91.262709 -102.101316 -66.081913 65 72 87
146.672817 -16.495648 87.368644 242 210 181
-81.133946 -93.289789 -57.504352 93 104 102
111.635553 -37.324991 52.412517 37 34 36
-206.427412 -84.895849 -109.516340 214 193 166
5.027571 -68.147497 4.176138 30 41 68
179.067068 -38.336909 123.683692 17 13 12
219.176318 33.051027 143.105671 12 28 97
308.639896 64.902556 150.875508 121 108 92
1038.663335 -98.650121 544.008337 213 189 167
240.943680 33.291607 158.271153 140 152 156
-197.007319 -44.782782 -99.637428 176 164 146
-102.037806 -81.288461 -58.895492 235 212 186
261.501936 55.559219 130.377134 121 111 93
-44.920310 -72.680997 -34.327677 82 91 111
441.864366 63.702199 245.641261 129 122 113
24.586784 -56.036940 18.428365 61 75 93
-474.878302 -204.652663 -289.499295 39 26 18
4.180893 -67.462632 3.222558 67 83 96
-106.582891 -65.553172 -61.675662 224 201 175
304.051167 80.031926 187.478415 178 159 144
-40.967312 -66.974394 -31.903680 89 99 109
179.631791 -38.485749 95.591135 56 40 24
-302.176966 -56.323407 -150.350422 184 170 158
164.990543 -39.935719 83.396246 36 21 5
-72.544554 -129.880223 -58.599792 62 77 93
91.659804 -31.499235 44.703219 65 59 52
-997.151713 -309.685339 -560.027067 60 41 26
-81.873058 -77.446321 -57.005022 93 101 130
-19.363807 -81.907033 -15.680158 60 73 87
-88.610755 -67.792980 -59.529284 185 173 163
772.259309 464.112324 497.746605 106 103 99
-53.188569 -73.891476 -39.598427 122 131 144
129.003047 -38.678861 62.813649 147 136 122
-229.953923 -186.886493 -158.226087 40 94 157
-115.713401 -118.488568 -78.447564 96 108 110
-84.013216 -75.572856 -51.738172 236 213 187
101.435995 -32.171666 48.535618 55 54 50
309.247376 65.327497 148.884182 82 73 63
590.372763 43.879372 373.996681 51 29 18
-998.114336 -309.710848 -560.117392 60 41 26
-103.382268 -113.098054 -71.804431 14 16 24
939.205691 232.541569 460.886412 174 157 138
-20.058281 -78.743717 -20.627785 22 16 105
220.780299 -29.436658 124.250257 57 38 23
-104.879322 -73.141987 -70.061967 195 183 177
153.025273 -28.334727 89.153550 221 194 174
-33.889312 -89.837054 -30.335739 56 71 90
-144.721844 -120.625414 -88.929188 37 24 16
-144.721844 -120.625414 -88.929188 37 24 16
-219.496523 -88.754888 -114.455999 212 189 167
-26.939547 -89.325142 -22.911347 69 82 96
27.220900 -51.284566 20.531978 54 70 83
160.243814 -42.243409 84.791650 48 31 18
89.770926 -29.790979 58.051225 14 45 14
-405.804233 -82.694256 -219.981655 225 204 177
-100.726728 -83.475637 -59.292264 239 216 190
-63.781536 -92.813405 -48.391149 7 0 0
328.333304 0.206854 195.715612 52 32 21
144.059250 -30.740493 80.504331 233 203 186
661.640303 195.092588 340.338239 222 194 164
378.813229 4.278043 203.443214 68 49 28
-272.652743 -241.489065 -191.088263 52 96 59
-106.344696 -83.469466 -59.805386 232 209 183
-52.802321 -106.378740 -43.634607 71 86 102
95.594193 -31.620937 63.068619 39 88 150
-447.418797 -282.234519 -254.510526 221 194 168
227.203151 3.408678 151.074588 107 118 122
51.686626 -56.426016 37.541385 73 86 100
-23.077768 -92.803997 -23.304501 48 59 73
327.597455 -6.229823 174.050835 62 46 30
-37.250581 -96.395772 -29.739532 70 86 103
-544.281236 -173.733557 -258.264726 255 255 254
131.605879 -17.233254 62.086872 31 33 33
136.420352 -10.370275 89.314759 18 68 140
399.758733 128.815456 195.998943 97 88 74
133.407759 -25.116553 67.015832 204 177 150
-14.375075 -73.746540 -12.023784 10 35 79
184.841236 -36.563651 99.607438 53 36 23
-94.565635 -67.902382 -48.331442 194 176 153
-94.565635 -67.902382 -48.331442 194 176 153
-403.099517 -329.713356 -283.761219 50 66 79
-94.527853 -67.908030 -48.310675 194 176 153
-94.527853 -67.908030 -48.310675 194 176 153
518.509782 69.211494 315.362860 19 3 0
-121.429501 -70.772787 -64.458491 214 191 165
123.621789 -31.357622 59.323676 163 145 122
576.788407 190.714607 274.230102 56 53 49
-95.440406 -60.850897 -52.703485 214 193 166
-17.457839 -70.777783 -14.897539 87 90 94
-17.358956 -73.531977 -16.878146 26 19 110
-50.920562 -103.505386 -37.835896 62 76 94
790.848477 317.664028 487.003607 189 169 152
48.834204 -45.096411 34.592182 71 82 96
242.770601 -19.891024 135.243833 46 32 20
131.461898 -5.370245 67.777099 117 115 105
-28.036490 -87.888727 -26.151736 58 71 87
-28.036490 -87.888727 -26.151736 58 71 87
114.219130 -36.426731 54.116076 108 96 84
-87.437075 -74.747171 -52.920453 237 214 188
-109.337457 -72.450944 -53.472408 13 0 2
-35.542751 -82.589685 -26.853462 2 0 0
-5.767178 -72.499495 -4.944696 61 67 74
-90.813441 -67.070464 -49.418567 216 193 167
48.573239 -68.157564 35.197054 88 99 127
310.574184 -28.872763 144.677190 63 34 19
370.697679 176.300464 234.341992 105 102 97
-605.350695 48.100706 -388.926730 193 180 164
389.361751 130.792309 200.969711 129 116 94
370.558123 176.176054 234.229787 105 102 97
-129.821578 -132.707329 -92.606655 84 99 115
-190.743277 -93.684115 -118.433331 237 220 201
813.292148 207.610322 506.158419 251 225 201
-395.357801 -0.283203 -254.096093 191 178 164
-1212.967814 -122.103735 -603.307748 201 180 158
-151.771046 -64.000332 -78.668820 207 186 159
35.754837 -56.242793 26.624141 76 90 108
-17.406075 -69.139978 -14.464782 84 89 88
334.401508 10.695279 165.491797 23 11 5
-0.067774 -69.982658 -0.057601 50 64 76
-370.689543 -40.735500 -238.640533 196 182 170
-202.043810 -32.976879 -132.550745 223 207 184
128.914330 -2.676248 75.452309 144 134 127
-140.116965 -90.737238 -73.222781 213 190 168
-117.403460 -60.264404 -58.225023 18 3 1
-97.467349 -57.072817 -63.601951 184 172 160
0.096619 -69.854709 0.081996 49 63 75
-147.666418 -95.441169 -76.232921 212 189 167
-147.666418 -95.441169 -76.232921 212 189 167
906.672846 351.168126 552.796019 214 190 170
-44.318555 -76.584036 -29.747857 74 80 93
-17.615812 -76.880437 -14.861341 25 36 58
97.458924 -32.015727 46.646795 61 58 50
-204.537901 -88.051750 -99.286354 186 172 154
188.459715 27.865882 109.738572 157 144 130
-104.299288 -70.802130 -63.274331 233 210 184
-666.605423 -257.129563 -368.412014 36 23 15
-8.243240 -71.478481 -7.321986 124 126 180
-19.551145 -82.437953 -18.145270 50 63 79
-99.324122 -81.439596 -57.546267 237 214 188
189.332700 -18.695201 97.513439 177 157 140
139.041890 -12.145390 67.495755 108 99 85
-12.775806 -72.577450 -9.175457 26 31 106
-87.412789 -133.241747 -65.718511 61 77 94
-8.450663 -73.041245 -7.381259 6 0 1
-57.243681 -86.523772 -42.525931 48 61 83
-413.251390 -124.324900 -239.060464 255 242 221
17.878076 -64.176116 13.080717 46 54 71
1.718957 -69.615386 1.478399 19 12 103
-134.638786 -156.047693 -95.852043 40 46 59
247.915958 83.571377 157.656320 59 67 66
-22.091702 -67.887717 -19.582213 90 96 95
-52.653396 -83.136046 -38.923801 14 11 13
-220.347696 -184.117758 -146.844231 32 79 141
-66.085610 -108.909698 -50.606284 76 92 105
264.220423 -20.513935 132.481187 52 34 17
178.909838 -8.465150 98.350539 249 220 193
13.212101 -62.687082 11.899148 56 68 86
187.997742 -17.731319 97.903292 198 173 153
288.648163 50.154408 165.211765 225 195 170
-130.817475 -62.938829 -77.622174 231 208 182
-462.985985 11.559165 -292.897858 205 191 172
280.747402 -16.961912 160.875607 56 37 22
89.185408 -28.753696 57.084610 7 33 10
-309.164253 -239.425749 -196.994331 140 150 138
-108.912839 -61.441266 -55.961658 198 177 150
-98.071771 -66.236264 -56.759649 226 205 178
-134.202101 -114.135629 -86.323043 144 151 154
-123.938091 -150.824944 -82.767298 67 83 96
809.631105 -165.278574 535.807629 64 66 74
-276.402875 -224.605322 -174.256884 165 153 147
-117.735760 -59.333468 -78.412256 116 125 134
138.939471 -20.962375 66.339824 149 127 109
-183.804589 -43.203791 -109.798276 223 202 175
-103.082555 -87.221000 -60.119214 236 213 191
-83.428991 -64.768423 -42.278078 190 176 153
-285.205235 -198.586767 -178.754862 227 208 187
217.031899 -7.465149 125.894549 226 197 176
193.894065 -17.875271 91.515012 136 126 116
-471.559591 -360.029008 -321.354373 39 54 63
-142.853595 -119.041416 -85.854067 37 24 16
-142.853595 -119.041416 -85.854067 37 24 16
-116.384130 -59.540087 -59.540754 196 175 148
95.101516 -18.182698 58.260139 116 112 107
257.205099 40.865899 165.268390 32 79 141
-70.766657 -124.743607 -54.209376 70 85 101
858.752721 355.366474 454.237748 173 157 140
-40.656116 -81.885819 -31.061392 22 20 90
184.077048 -21.924111 110.448506 155 143 133
-98.998350 -60.091045 -55.545664 219 196 170
-145.988701 -93.143286 -76.460382 220 196 174
-133.753968 -87.234091 -72.993120 232 208 186
-144.568297 -87.991545 -88.396179 232 215 194
178.764730 25.489427 102.069788 136 126 116
180.010037 -8.547871 98.233482 249 220 193
94.133932 -18.889957 58.124170 119 115 110
-33.700334 -85.896604 -27.334857 56 70 92
139.235432 -12.541486 67.110891 108 99 85
18.992497 -58.022892 14.616404 62 78 94
28.013431 -56.518038 21.250356 74 87 103
-104.048009 -124.980800 -73.806848 77 90 104
97.982051 -26.880166 49.080065 119 109 92
-32.303270 -90.418201 -26.555180 62 75 89
-99.558386 -80.578562 -60.584898 239 216 194
-96.268531 -128.167514 -69.563902 73 89 102
492.387695 73.944569 303.062870 154 148 141
351.400783 -148.994917 230.334506 114 124 131
94.284208 -38.829954 58.429285 201 190 176
1290.105042 -0.053543 672.648723 221 200 173
-159.753789 -90.633410 -81.029643 208 185 163
162.178226 12.910855 104.669288 47 93 51
-79.857962 -70.655249 -50.603260 228 208 190
-16.595707 -72.039067 -15.103902 28 23 115
-495.031031 -169.319637 -282.962891 254 255 245
487.497232 -43.170678 274.144148 238 217 190
184.315147 -0.398363 101.916159 221 194 168
-63.811944 -80.539770 -45.392846 149 156 165
126.589358 -17.719631 75.810990 189 169 152
-518.194553 -353.798900 -343.866874 67 78 92
7.503548 -65.640356 6.021171 62 75 89
527.347987 39.503549 248.623548 34 20 8
-178.816572 -114.742243 -97.296897 255 255 220
-62.747033 -86.292476 -45.313637 114 120 133
-148.354094 -90.766664 -73.100151 197 179 156
13.119700 -71.565013 9.496480 82 94 98
-454.252179 -165.553741 -218.957433 215 194 163
735.721658 134.442578 340.720759 50 51 49
-630.479814 -340.363528 -370.854634 248 216 187
190.646410 32.602554 116.969510 138 128 121
124.242134 -31.838204 80.290510 79 92 106
198.167537 -28.095834 91.544740 5 2 0
225.451657 -0.022317 107.200968 202 188 160
-630.167662 -288.877246 -297.380072 161 145 128
-47.146327 -66.147355 -33.148252 113 123 130
-146.986796 -90.604596 -96.956214 106 111 126
-172.350111 -116.231161 -113.203154 8 4 3
509.226661 -122.048265 275.030986 223 200 174
182.806068 4.403188 90.505180 163 142 120
-157.580687 -90.134898 -89.613063 236 215 188
-402.642423 -122.268359 -228.802680 255 242 221
-44.802003 -67.088839 -32.036041 119 131 137
948.280071 208.998139 490.290432 91 86 85
-188.879839 -161.553223 -117.943444 209 198 184
-677.431104 -416.621119 -419.268000 171 159 153
-425.060393 -299.962083 -282.761268 48 55 70
-14.167763 -69.928184 -11.185474 86 90 91
-41.242750 -79.923294 -29.629523 33 30 99
-634.454053 -14.741173 -393.721810 212 197 181
451.066646 -110.005472 277.329378 228 209 188
296.972731 -83.067155 178.929437 243 220 198
497.710266 -96.314614 319.153508 117 126 139
-127.744931 -77.215039 -84.164076 112 121 134
-759.246149 5.859323 -389.801309 209 188 161
170.291468 -9.320185 100.659327 252 225 198
-21.197359 -70.929825 -14.639295 0 0 73
24.105580 -71.809194 18.391091 15 14 117
-20.255495 -88.313832 -18.412490 39 51 63
47.544419 -42.112897 31.205707 64 80 97
-405.480290 8.770106 -238.010787 223 199 177
-562.809656 -322.930413 -293.824801 216 192 164
-150.890928 -50.196125 -88.615614 223 202 175
173.265014 16.934213 99.427167 149 137 125
126.645295 -10.986994 68.468328 150 137 121
122.721880 -18.597665 72.231578 180 161 146
